ply
format ascii 1.0
comment Created by Open3D
element vertex 1431
property double x
property double y
property double z
property uchar red
property uchar green
property uchar blue
end_header
-0.064833 -0.000582 1.18281 0 0 0
-0.064832 0.041872 1.14436 0 0 0
-0.064831 -0.113937 1.13363 0 0 0
-0.064819 -0.00695 1.18896 0 0 0
-0.064814 0.00139 1.18363 0 0 0
-0.064813 0.027314 1.14902 0 0 0
-0.064808 -0.004317 1.18676 0 0 0
-0.064806 0.026731 1.14993 0 0 0
-0.064804 0.018572 1.16266 0 0 0
-0.0648 -0.099655 1.12777 0 0 0
-0.0648 -0.098365 1.13152 0 0 0
-0.064799 -0.010523 1.19073 0 0 0
-0.064799 0.04363 1.13567 0 0 0
-0.064793 -0.095304 1.13813 0 0 0
-0.064787 0.030966 1.02482 0 0 0
-0.064782 -0.005828 1.18722 0 0 0
-0.06478 -0.09757 0.839992 0 0 0
-0.064777 -0.100555 1.12739 0 0 0
-0.064775 -0.104717 1.1289 0 0 0
-0.064773 -0.0983 1.12939 0 0 0
-0.064764 -0.116634 1.1346 0 0 0
-0.064761 -0.098577 0.816762 0 0 0
-0.06476 0.032578 1.13484 0 0 0
-0.064756 -0.084534 1.13503 0 0 0
-0.064751 -0.094912 0.825247 0 0 0
-0.064746 -0.115406 1.16645 0 0 0
-0.064742 -0.004701 1.18548 0 0 0
-0.06474 0.039863 1.15745 0 0 0
-0.064735 0.043495 1.13794 0 0 0
-0.064732 -0.051871 1.12637 0 0 0
-0.064731 0.023942 1.02505 0 0 0
-0.064729 -0.106984 1.12901 0 0 0
-0.064728 -0.095702 1.13687 0 0 0
-0.064728 0.041416 1.15111 0 0 0
-0.064727 -0.049867 1.12495 0 0 0
-0.064723 -0.114786 1.13323 0 0 0
-0.064723 0.014318 1.16543 0 0 0
-0.064723 0.036363 1.12692 0 0 0
-0.064709 0.001739 1.18704 0 0 0
-0.064701 0.039393 1.12219 0 0 0
-0.064695 0.040317 1.15877 0 0 0
-0.064687 -0.011426 1.19031 0 0 0
-0.064685 0.023669 1.21496 0 0 0
-0.064683 -0.047405 1.1248 0 0 0
-0.064682 -0.105582 1.1285 0 0 0
-0.06468 -0.124931 1.15202 0 0 0
-0.06468 0.040073 1.15519 0 0 0
-0.064678 -0.124289 1.13874 0 0 0
-0.064678 -0.100256 0.815709 0 0 0
-0.064676 -0.120152 1.15923 0 0 0
-0.064671 -0.001442 1.19011 0 0 0
-0.064649 -0.107853 1.12863 0 0 0
-0.064644 -0.10418 1.12799 0 0 0
-0.064639 -0.008787 1.18812 0 0 0
-0.064638 -0.098827 0.819732 0 0 0
-0.064635 0.000651 1.18104 0 0 0
-0.064633 0.032827 1.18198 0 0 0
-0.064631 0.033395 1.02446 0 0 0
-0.064626 -0.123807 1.13787 0 0 0
-0.064626 -0.08182 1.19949 0 0 0
-0.064623 -0.106461 1.12812 0 0 0
-0.064623 0.014953 1.16451 0 0 0
-0.06462 -0.045023 1.12684 0 0 0
-0.064618 -0.115636 1.13284 0 0 0
-0.064618 0.026056 1.2038 0 0 0
-0.064617 -0.101967 0.814943 0 0 0
-0.064616 0.043219 1.14246 0 0 0
-0.064615 0.012241 1.16679 0 0 0
-0.064606 0.025907 1.02578 0 0 0
-0.064605 -0.126207 1.15042 0 0 0
-0.064596 -0.113793 1.13148 0 0 0
-0.064589 0.042282 1.14791 0 0 0
-0.064584 0.040562 1.1565 0 0 0
-0.064583 0.041336 1.15334 0 0 0
-0.064573 -0.1037 0.814385 0 0 0
-0.064572 0.029396 1.02569 0 0 0
-0.064569 0.044387 1.13468 0 0 0
-0.064567 0.042472 1.14564 0 0 0
-0.064565 -0.023418 1.23959 0 0 0
-0.064563 -0.105488 0.814266 0 0 0
-0.064558 -0.103663 1.1271 0 0 0
-0.064555 -0.107336 1.12773 0 0 0
-0.064553 -0.11514 1.13196 0 0 0
-0.064546 -0.091673 0.829315 0 0 0
-0.064546 -0.081597 1.13398 0 0 0
-0.064545 -0.022466 1.24 0 0 0
-0.064544 0.035276 1.12877 0 0 0
-0.064541 -0.125753 1.15162 0 0 0
-0.06454 -0.117934 1.16323 0 0 0
-0.064539 -0.096901 1.13309 0 0 0
-0.064536 0.025064 1.2111 0 0 0
-0.064536 0.031873 1.02527 0 0 0
-0.064534 0.004358 1.1792 0 0 0
-0.064533 -0.116198 1.16604 0 0 0
-0.064526 -0.018641 0.973063 0 0 0
-0.064517 -0.09512 1.13596 0 0 0
-0.064516 0.04198 1.15241 0 0 0
-0.064511 -0.105934 1.12722 0 0 0
-0.064509 0.045749 1.12456 0 0 0
-0.064507 -0.125103 1.13834 0 0 0
-0.064504 -0.016254 1.24168 0 0 0
-0.064499 0.003394 1.17879 0 0 0
-0.064497 -0.084839 1.13372 0 0 0
-0.064495 -0.086252 1.13422 0 0 0
-0.064495 0.025977 1.20594 0 0 0
-0.064482 -0.09763 1.12632 0 0 0
-0.064481 0.012071 1.23061 0 0 0
-0.064478 -0.108206 1.12734 0 0 0
-0.064478 0.040884 1.16005 0 0 0
-0.064474 -0.101757 1.1257 0 0 0
-0.064465 -0.115998 1.13157 0 0 0
-0.064464 -0.122817 1.13612 0 0 0
-0.064456 -0.044407 1.1259 0 0 0
-0.064455 0.008922 1.17211 0 0 0
-0.064445 -0.123978 1.15441 0 0 0
-0.064445 -0.04397 1.12719 0 0 0
-0.06444 -0.105425 1.12633 0 0 0
-0.064438 0.02896 1.19381 0 0 0
-0.064432 0.04126 1.15556 0 0 0
-0.064427 -0.045254 1.12331 0 0 0
-0.06442 -0.120924 1.15881 0 0 0
-0.06441 -0.017156 0.969903 0 0 0
-0.064408 -0.007408 1.24132 0 0 0
-0.064401 -0.098519 0.832813 0 0 0
-0.0644 0.002469 1.17837 0 0 0
-0.064394 -0.112206 1.17079 0 0 0
-0.064392 0.02833 1.14577 0 0 0
-0.064383 -0.053072 1.12462 0 0 0
-0.064381 0.046084 1.12818 0 0 0
-0.064368 -0.102618 1.1253 0 0 0
-0.064362 0.043813 1.14374 0 0 0
-0.064357 -0.115696 1.16722 0 0 0
-0.064356 -0.085693 1.13331 0 0 0
-0.064354 -0.084277 1.13281 0 0 0
-0.064354 0.045135 1.1337 0 0 0
-0.064351 -0.10122 1.12479 0 0 0
-0.064349 0.033596 1.18105 0 0 0
-0.064345 -0.038386 1.11363 0 0 0
-0.064344 0.021912 1.15583 0 0 0
-0.064339 -0.114378 1.16881 0 0 0
-0.064336 0.046293 1.12587 0 0 0
-0.064334 -0.095893 1.13342 0 0 0
-0.064333 -0.093635 1.13542 0 0 0
-0.064328 -0.026103 1.23833 0 0 0
-0.06432 -0.081251 1.20067 0 0 0
-0.064319 -0.097359 0.841449 0 0 0
-0.064313 -0.097735 0.837805 0 0 0
-0.064312 -0.043073 1.11965 0 0 0
-0.064306 -0.098397 0.828253 0 0 0
-0.064303 -0.123637 1.13572 0 0 0
-0.064302 0.03801 1.12265 0 0 0
-0.064297 -0.051027 1.12318 0 0 0
-0.064295 -0.044459 1.11797 0 0 0
-0.064295 0.045819 1.00631 0 0 0
-0.064294 -0.0998 1.12427 0 0 0
-0.064294 0.047129 0.998118 0 0 0
-0.064292 -0.108552 1.12606 0 0 0
-0.064291 -0.123486 1.1556 0 0 0
-0.064291 -0.035983 1.11568 0 0 0
-0.064289 -0.043356 1.12625 0 0 0
-0.064282 0.036817 1.12454 0 0 0
-0.064275 -0.040388 1.11507 0 0 0
-0.064272 -0.120435 1.16 0 0 0
-0.064264 -0.093443 0.827493 0 0 0
-0.064264 -0.019481 1.24123 0 0 0
-0.064263 0.041796 1.15686 0 0 0
-0.06426 -0.098334 0.825978 0 0 0
-0.064258 0.02976 1.14165 0 0 0
-0.064254 -0.034991 1.11606 0 0 0
-0.064247 0.043711 1.14599 0 0 0
-0.064244 -0.039301 1.11322 0 0 0
-0.064244 0.001578 1.17794 0 0 0
-0.064242 -0.12315 1.13485 0 0 0
-0.064235 -0.10667 1.12466 0 0 0
-0.064233 -0.111279 1.12705 0 0 0
-0.064228 -0.085139 1.1324 0 0 0
-0.064228 0.015344 1.16224 0 0 0
-0.064227 -0.043361 1.11612 0 0 0
-0.064226 -0.108048 1.12517 0 0 0
-0.064225 0.037683 1.02235 0 0 0
-0.064223 0.027258 1.14758 0 0 0
-0.064222 -0.04206 1.12001 0 0 0
-0.064221 -0.126072 1.15241 0 0 0
-0.064219 -0.035838 1.11345 0 0 0
-0.064216 0.026674 1.1485 0 0 0
-0.064213 -0.086546 1.1329 0 0 0
-0.06421 0.006382 1.17433 0 0 0
-0.06421 0.006956 1.23476 0 0 0
-0.064208 -0.105273 1.12415 0 0 0
-0.064208 0.003706 1.17657 0 0 0
-0.064206 -0.117676 1.13077 0 0 0
-0.064205 -0.077642 1.20426 0 0 0
-0.064205 0.019828 1.22301 0 0 0
-0.064201 0.007518 1.17256 0 0 0
-0.064201 0.04527 0.979199 0 0 0
-0.064198 -0.110807 1.17236 0 0 0
-0.064198 0.046995 1.12489 0 0 0
-0.064194 -0.109413 1.12566 0 0 0
-0.064193 0.006957 1.17344 0 0 0
-0.064188 0.019203 1.02508 0 0 0
-0.064183 0.02586 1.2102 0 0 0
-0.064181 -0.032464 1.11589 0 0 0
-0.064168 0.035686 1.1264 0 0 0
-0.064166 -0.043229 1.11389 0 0 0
-0.064162 -0.034834 1.11381 0 0 0
-0.064162 0.047258 0.982337 0 0 0
-0.064158 -0.11948 1.13212 0 0 0
-0.064154 -0.10754 1.12427 0 0 0
-0.064154 -0.103862 1.12363 0 0 0
-0.06415 0.024422 1.21618 0 0 0
-0.064149 -0.046306 1.11717 0 0 0
-0.064145 0.024371 1.15215 0 0 0
-0.064133 -0.032871 1.11458 0 0 0
-0.064132 -0.049892 1.12133 0 0 0
-0.064127 0.045356 1.13956 0 0 0
-0.064125 -0.045234 1.11533 0 0 0
-0.064122 -0.09531 1.1325 0 0 0
-0.064121 -0.119 1.13125 0 0 0
-0.06412 0.045182 1.14183 0 0 0
-0.064116 -0.110282 1.12528 0 0 0
-0.064116 -0.041169 1.11243 0 0 0
-0.064113 0.018726 1.15901 0 0 0
-0.064111 0.046691 1.00424 0 0 0
-0.06411 -0.044696 1.11442 0 0 0
-0.064107 -0.086003 1.132 0 0 0
-0.0641 0.040561 1.1188 0 0 0
-0.064088 0.020173 1.02546 0 0 0
-0.064088 0.047152 1.00318 0 0 0
-0.064081 -0.124278 1.15519 0 0 0
-0.06408 -0.039646 1.11188 0 0 0
-0.064073 0.025772 1.21233 0 0 0
-0.06407 -0.037162 1.11172 0 0 0
-0.064069 0.047873 1.1216 0 0 0
-0.064068 -0.105641 1.12287 0 0 0
-0.064068 0.044433 1.14502 0 0 0
-0.064063 -0.125578 1.15359 0 0 0
-0.064063 0.019916 1.15719 0 0 0
-0.064061 -0.098727 1.12246 0 0 0
-0.064051 -0.007281 1.02149 0 0 0
-0.064047 -0.035417 1.11693 0 0 0
-0.064044 0.043316 1.15273 0 0 0
-0.064039 0.047726 0.983783 0 0 0
-0.064036 -0.095537 1.12483 0 0 0
-0.064035 -0.076234 1.20586 0 0 0
-0.064028 -0.09252 1.13361 0 0 0
-0.064025 0.00283 1.17614 0 0 0
-0.064024 0.010039 1.16678 0 0 0
-0.064021 -0.101931 1.12221 0 0 0
-0.06402 -0.080686 1.20184 0 0 0
-0.064019 0.002383 1.23805 0 0 0
-0.064018 -0.12575 1.13578 0 0 0
-0.064014 -0.104229 1.12235 0 0 0
-0.064014 -0.047196 1.11675 0 0 0
-0.064013 -0.106524 1.12249 0 0 0
-0.06401 0.006078 1.17301 0 0 0
-0.064009 0.046219 1.13631 0 0 0
-0.064002 -0.123475 1.13357 0 0 0
-0.063997 0.026866 1.20502 0 0 0
-0.063984 -0.041067 1.12255 0 0 0
-0.063983 -0.05077 1.12091 0 0 0
-0.063978 -0.006288 1.02186 0 0 0
-0.063974 0.044675 0.977907 0 0 0
-0.063973 0.031163 1.18893 0 0 0
-0.063972 -0.031374 1.11623 0 0 0
-0.063968 -0.103413 0.80887 0 0 0
-0.063967 -0.010393 1.02051 0 0 0
-0.063966 -0.128151 1.1504 0 0 0
-0.063965 -0.039047 1.11093 0 0 0
-0.063962 -0.112476 1.17156 0 0 0
-0.06396 0.029844 1.19287 0 0 0
-0.063959 -0.011423 1.02017 0 0 0
-0.063953 -0.101418 1.12132 0 0 0
-0.063948 0.048566 1.12062 0 0 0
-0.063944 0.047568 1.00217 0 0 0
-0.063941 -0.016049 1.01736 0 0 0
-0.063939 0.046444 1.13401 0 0 0
-0.063937 0.047416 1.12848 0 0 0
-0.063931 -0.082869 1.19983 0 0 0
-0.06393 -0.050217 1.11999 0 0 0
-0.063929 -0.051698 1.12052 0 0 0
-0.063928 -0.012463 1.01985 0 0 0
-0.06392 -0.049687 1.11908 0 0 0
-0.063914 -0.017394 1.24203 0 0 0
-0.063913 -0.124787 1.13404 0 0 0
-0.063911 -0.083999 1.13057 0 0 0
-0.063909 0.044964 1.14633 0 0 0
-0.063906 -0.046514 1.1136 0 0 0
-0.063893 -0.0375 1.11037 0 0 0
-0.063892 0.048353 1.11694 0 0 0
-0.063891 -0.040946 1.11015 0 0 0
-0.063889 -0.09862 0.817113 0 0 0
-0.063887 0.014552 1.16177 0 0 0
-0.063886 -0.09466 1.12944 0 0 0
-0.063882 0.023863 1.21914 0 0 0
-0.06388 -0.105509 1.1207 0 0 0
-0.063876 0.03903 1.02176 0 0 0
-0.063875 -0.099987 1.12079 0 0 0
-0.063874 0.047494 0.999715 0 0 0
-0.063872 -0.047554 1.11543 0 0 0
-0.063867 0.021781 1.15443 0 0 0
-0.063859 0.042484 1.15811 0 0 0
-0.063853 -0.104108 1.12018 0 0 0
-0.063849 -0.043926 1.11122 0 0 0
-0.06384 -0.118841 1.12909 0 0 0
-0.06384 -0.094207 1.13069 0 0 0
-0.063838 -0.093776 1.13194 0 0 0
-0.063837 0.048888 1.12426 0 0 0
-0.063835 -0.099325 0.806252 0 0 0
-0.063831 -0.039408 1.10959 0 0 0
-0.063827 0.018476 1.15765 0 0 0
-0.063827 0.035093 1.02552 0 0 0
-0.063824 0.044109 0.976581 0 0 0
-0.063822 0.049446 1.11732 0 0 0
-0.063819 -0.045407 1.11175 0 0 0
-0.063819 -0.030637 1.11304 0 0 0
-0.063814 0.022398 1.15351 0 0 0
-0.063812 -0.041872 1.10975 0 0 0
-0.063806 -0.084873 1.13017 0 0 0
-0.063806 -0.047952 1.11411 0 0 0
-0.063806 0.024098 1.02694 0 0 0
-0.063805 -0.094081 1.12641 0 0 0
-0.063802 0.024485 1.21828 0 0 0
-0.063801 0.032925 1.13102 0 0 0
-0.063799 -0.0958 0.814912 0 0 0
-0.063799 0.025788 1.21443 0 0 0
-0.063797 -0.051537 1.11829 0 0 0
-0.063797 -0.050054 1.11776 0 0 0
-0.063797 0.046787 1.13762 0 0 0
-0.063793 0.029208 1.19589 0 0 0
-0.063787 -0.04336 1.11028 0 0 0
-0.063784 0.049904 1.11867 0 0 0
-0.063781 -0.04952 1.11685 0 0 0
-0.06378 0.042593 1.11586 0 0 0
-0.063772 -0.101148 0.815615 0 0 0
-0.063759 -0.052474 1.1179 0 0 0
-0.063756 -0.097116 0.840623 0 0 0
-0.063755 -0.019218 1.01642 0 0 0
-0.063752 0.019682 1.15582 0 0 0
-0.063747 0.031005 1.13609 0 0 0
-0.063744 -0.04888 1.11372 0 0 0
-0.063743 0.025082 1.02731 0 0 0
-0.063739 -0.126059 1.13449 0 0 0
-0.063735 -0.089225 0.832091 0 0 0
-0.063735 0.036736 1.12307 0 0 0
-0.063733 0.015797 1.15994 0 0 0
-0.063727 0.011972 1.23139 0 0 0
-0.063726 -0.041292 1.10881 0 0 0
-0.063725 0.04569 1.14536 0 0 0
-0.063719 -0.114186 1.12458 0 0 0
-0.063716 -0.038809 1.10864 0 0 0
-0.063713 -0.030035 1.11209 0 0 0
-0.06371 -0.121958 1.15915 0 0 0
-0.063707 -0.103751 0.81478 0 0 0
-0.063705 0.012517 1.16314 0 0 0
-0.063704 0.047207 1.13302 0 0 0
-0.063701 -0.05192 1.11698 0 0 0
-0.0637 -0.121497 1.13005 0 0 0
-0.0637 0.024222 1.15075 0 0 0
-0.063697 -0.03977 1.10826 0 0 0
-0.063692 0.033558 1.02635 0 0 0
-0.06369 0.047944 1.00121 0 0 0
-0.063685 0.01446 1.02509 0 0 0
-0.063684 0.050401 1.12001 0 0 0
-0.063682 -0.048753 1.11149 0 0 0
-0.063682 -0.047262 1.11095 0 0 0
-0.063672 -0.094395 1.12298 0 0 0
-0.063672 0.048059 0.982886 0 0 0
-0.063666 -0.097999 0.835665 0 0 0
-0.063656 -0.091434 0.825762 0 0 0
-0.063649 -0.104281 0.808379 0 0 0
-0.063645 -0.097951 0.820609 0 0 0
-0.063636 -0.131053 1.14593 0 0 0
-0.063632 -0.038226 1.1077 0 0 0
-0.06363 -0.115516 1.12506 0 0 0
-0.063629 0.048842 1.12652 0 0 0
-0.063627 0.050255 1.12231 0 0 0
-0.063625 -0.103044 1.11836 0 0 0
-0.063625 0.047509 1.13664 0 0 0
-0.063611 0.016449 1.15902 0 0 0
-0.063608 -0.102124 1.11873 0 0 0
-0.063606 -0.120529 1.1283 0 0 0
-0.063606 -0.098318 0.829752 0 0 0
-0.063604 -0.002985 1.24088 0 0 0
-0.0636 0.028589 1.19891 0 0 0
-0.063599 0.013728 1.16132 0 0 0
-0.063597 0.026033 1.02771 0 0 0
-0.063589 -0.094787 1.1217 0 0 0
-0.063588 -0.094203 0.816543 0 0 0
-0.063587 -0.043687 1.10893 0 0 0
-0.063585 0.022336 1.22167 0 0 0
-0.06358 0.047358 1.13892 0 0 0
-0.063578 -0.037224 1.10807 0 0 0
-0.063576 -0.097966 1.11932 0 0 0
-0.063576 0.044996 0.977025 0 0 0
-0.06357 0.029929 1.13792 0 0 0
-0.063569 -0.129743 1.14957 0 0 0
-0.063569 -0.128437 1.15116 0 0 0
-0.063568 -0.124608 1.13187 0 0 0
-0.063565 0.027399 1.2084 0 0 0
-0.063561 -0.12233 1.12965 0 0 0
-0.063561 -0.019055 0.970982 0 0 0
-0.06356 0.050851 1.11534 0 0 0
-0.06355 -0.092987 1.12459 0 0 0
-0.063548 -0.037642 1.10675 0 0 0
-0.063544 -0.038613 1.10637 0 0 0
-0.063543 -0.028851 1.1102 0 0 0
-0.06354 0.01854 1.22548 0 0 0
-0.063536 0.036466 1.02489 0 0 0
-0.063531 -0.098445 0.832065 0 0 0
-0.063527 0.028609 1.14202 0 0 0
-0.063527 0.048727 1.1288 0 0 0
-0.063524 -0.051736 1.11473 0 0 0
-0.063524 -0.029063 1.11466 0 0 0
-0.063518 0.050942 1.12133 0 0 0
-0.063514 -0.120025 1.12741 0 0 0
-0.063512 0.03071 1.19193 0 0 0
-0.063506 0.04646 0.978782 0 0 0
-0.063502 -0.051199 1.11381 0 0 0
-0.063501 -0.039562 1.10598 0 0 0
-0.0635 -0.10342 1.11707 0 0 0
-0.063499 -0.035668 1.1075 0 0 0
-0.063499 0.027756 1.20409 0 0 0
-0.063498 -0.116357 1.12466 0 0 0
-0.063495 0.025823 1.21654 0 0 0
-0.063492 -0.041065 1.10652 0 0 0
-0.06349 -0.028387 1.1115 0 0 0
-0.063482 0.04333 1.15712 0 0 0
-0.063479 -0.047588 1.10961 0 0 0
-0.063478 -0.049079 1.11014 0 0 0
-0.063478 -0.037065 1.10581 0 0 0
-0.063473 0.035099 1.12585 0 0 0
-0.063469 -0.110521 1.17429 0 0 0
-0.063463 -0.126658 1.15395 0 0 0
-0.063459 -0.028258 1.10925 0 0 0
-0.063454 -0.093805 1.12205 0 0 0
-0.063453 0.014966 1.15949 0 0 0
-0.063451 -0.097423 1.11841 0 0 0
-0.063449 -0.096505 1.11878 0 0 0
-0.063446 0.028069 1.14293 0 0 0
-0.063445 -0.10039 0.817151 0 0 0
-0.063439 0.04121 1.16434 0 0 0
-0.063436 -0.125339 1.15554 0 0 0
-0.063435 -0.028468 1.11372 0 0 0
-0.063432 -0.086971 1.12808 0 0 0
-0.063429 -0.042536 1.10705 0 0 0
-0.063429 0.04861 1.13108 0 0 0
-0.063428 0.030481 1.02803 0 0 0
-0.063423 0.026973 1.02813 0 0 0
-0.063417 -0.035082 1.10656 0 0 0
-0.063412 0.047109 1.14344 0 0 0
-0.06341 0.048677 0.994239 0 0 0
-0.063409 -0.102897 1.11617 0 0 0
-0.063409 0.04808 1.13794 0 0 0
-0.063405 -0.103714 1.1115 0 0 0
-0.063403 0.02188 1.2225 0 0 0
-0.0634 0.009525 1.23345 0 0 0
-0.063398 0.042408 1.11442 0 0 0
-0.063392 -0.036479 1.10486 0 0 0
-0.06339 -0.094207 1.12077 0 0 0
-0.063387 -0.102791 1.11187 0 0 0
-0.063386 -0.044014 1.10758 0 0 0
-0.063385 0.052264 1.11938 0 0 0
-0.063381 -0.050517 1.11066 0 0 0
-0.06338 -0.119655 1.16311 0 0 0
-0.063377 -0.131397 1.14673 0 0 0
-0.063377 0.048282 1.13565 0 0 0
-0.063373 -0.034517 1.10562 0 0 0
-0.063372 -0.117201 1.12426 0 0 0
-0.063371 0.049443 1.12782 0 0 0
-0.063367 0.024002 1.14936 0 0 0
-0.063366 -0.051561 1.11249 0 0 0
-0.06336 0.048924 0.983358 0 0 0
-0.063359 -0.10196 1.11653 0 0 0
-0.063354 0.02284 1.15119 0 0 0
-0.063351 -0.114886 1.122 0 0 0
-0.063347 -0.095052 1.11824 0 0 0
-0.06334 -0.035475 1.10523 0 0 0
-0.06334 0.052912 1.11841 0 0 0
-0.063337 -0.10272 1.1097 0 0 0
-0.063334 0.043059 1.11344 0 0 0
-0.063331 -0.125396 1.13145 0 0 0
-0.063331 -0.116715 1.12338 0 0 0
-0.063329 -0.096885 0.842073 0 0 0
-0.063327 0.042655 1.16026 0 0 0
-0.063322 -0.101029 1.11689 0 0 0
-0.063322 -0.086426 1.12717 0 0 0
-0.063321 0.025203 1.14752 0 0 0
-0.06332 0.033498 1.18398 0 0 0
-0.063307 0.016208 1.15765 0 0 0
-0.063306 -0.089944 0.830703 0 0 0
-0.063303 -0.049949 1.10972 0 0 0
-0.063302 -0.098051 0.818415 0 0 0
-0.063302 0.030857 1.13466 0 0 0
-0.063295 -0.088751 1.12729 0 0 0
-0.063292 -0.034907 1.10428 0 0 0
-0.063292 -0.016855 1.01879 0 0 0
-0.06329 -0.132215 1.14427 0 0 0
-0.06329 -0.116229 1.1225 0 0 0
-0.063287 -0.027294 1.11183 0 0 0
-0.063283 -0.103611 1.10932 0 0 0
-0.06328 -0.092803 1.12238 0 0 0
-0.063277 -0.095451 1.11696 0 0 0
-0.063271 -0.096368 1.11659 0 0 0
-0.063263 -0.101867 1.11436 0 0 0
-0.063263 -0.081705 1.20218 0 0 0
-0.063262 0.047862 0.980616 0 0 0
-0.063254 -0.028902 1.10432 0 0 0
-0.063252 -0.046408 1.10771 0 0 0
-0.063251 -0.022027 1.0171 0 0 0
-0.063246 -0.103112 1.10842 0 0 0
-0.063246 -0.091435 1.12401 0 0 0
-0.063228 -0.017913 1.01848 0 0 0
-0.063224 -0.117427 1.16711 0 0 0
-0.063224 -0.115731 1.12161 0 0 0
-0.063215 -0.104975 1.10982 0 0 0
-0.063208 0.03347 1.12862 0 0 0
-0.063207 -0.11756 1.12298 0 0 0
-0.063205 -0.027892 1.10469 0 0 0
-0.063204 0.050781 1.12588 0 0 0
-0.063201 -0.104488 1.10893 0 0 0
-0.0632 0.037854 1.1197 0 0 0
-0.063198 0.036648 1.1216 0 0 0
-0.063198 0.03846 1.11875 0 0 0
-0.063194 0.05233 1.11333 0 0 0
-0.063189 -0.115245 1.12072 0 0 0
-0.063188 -0.027013 1.10732 0 0 0
-0.063184 -0.036261 1.10256 0 0 0
-0.063184 -0.026689 1.11088 0 0 0
-0.063184 0.030337 1.13557 0 0 0
-0.063184 0.03968 1.11684 0 0 0
-0.063183 -0.121207 1.12573 0 0 0
-0.063178 -0.094918 1.11605 0 0 0
-0.063178 0.053638 1.11742 0 0 0
-0.06317 -0.003561 1.02327 0 0 0
-0.063168 -0.103992 1.10803 0 0 0
-0.063166 -0.123944 1.12882 0 0 0
-0.063165 0.032899 1.12955 0 0 0
-0.063163 -0.117073 1.1221 0 0 0
-0.063158 -0.093987 1.11642 0 0 0
-0.063158 -0.040784 1.1042 0 0 0
-0.063151 -0.126667 1.13191 0 0 0
-0.06315 -0.128713 1.15193 0 0 0
-0.06315 -0.112154 1.17347 0 0 0
-0.06314 -0.123471 1.12795 0 0 0
-0.063139 0.040316 1.11587 0 0 0
-0.063132 -0.109947 1.17545 0 0 0
-0.06313 -0.044312 1.10621 0 0 0
-0.063124 -0.089223 0.830717 0 0 0
-0.063117 0.044423 1.11147 0 0 0
-0.063116 0.030216 1.19493 0 0 0
-0.063112 -0.100349 1.11165 0 0 0
-0.063108 -0.130002 1.15033 0 0 0
-0.063108 -0.04879 1.10784 0 0 0
-0.063106 0.046344 1.14885 0 0 0
-0.063103 -0.126188 1.13103 0 0 0
-0.063099 -0.027403 1.23945 0 0 0
-0.063098 -0.042258 1.10474 0 0 0
-0.063096 0.040952 1.1149 0 0 0
-0.063095 -0.099857 1.11075 0 0 0
-0.063092 -1.6e-05 1.02321 0 0 0
-0.06309 -0.105352 1.10853 0 0 0
-0.063085 -0.045787 1.10675 0 0 0
-0.063083 -0.132532 1.14094 0 0 0
-0.063072 -0.117933 1.12171 0 0 0
-0.063072 -0.089508 1.12472 0 0 0
-0.063072 -0.050261 1.10837 0 0 0
-0.063067 -0.131718 1.14752 0 0 0
-0.063065 -0.095298 1.11476 0 0 0
-0.063065 0.044203 1.15613 0 0 0
-0.06306 0.02877 1.20101 0 0 0
-0.063058 -0.125709 1.13016 0 0 0
-0.063049 0.041591 1.11394 0 0 0
-0.063046 0.051127 1.10919 0 0 0
-0.06304 -0.090847 1.12308 0 0 0
-0.063033 -0.131276 1.14873 0 0 0
-0.063031 0.048576 1.14149 0 0 0
-0.06303 0.007113 1.2355 0 0 0
-0.063026 -0.09257 1.11802 0 0 0
-0.063021 -0.118648 1.16548 0 0 0
-0.063021 -0.098668 0.817515 0 0 0
-0.06302 0.025965 1.21862 0 0 0
-0.063019 -0.099439 1.11415 0 0 0
-0.063011 -0.01741 1.24278 0 0 0
-0.063009 -0.02625 1.10409 0 0 0
-0.063005 -0.114287 1.17148 0 0 0
-0.063005 -0.036598 1.1012 0 0 0
-0.062998 0.04863 0.999377 0 0 0
-0.062998 0.052645 1.11095 0 0 0
-0.062988 0.052218 1.10958 0 0 0
-0.062982 0.027342 1.14243 0 0 0
-0.06298 -0.106695 1.10903 0 0 0
-0.062974 -0.106214 1.10814 0 0 0
-0.062964 -0.098878 1.11109 0 0 0
-0.062964 -0.048185 1.10688 0 0 0
-0.062956 0.050761 1.12813 0 0 0
-0.062955 -0.098006 1.11362 0 0 0
-0.062954 0.019231 1.02713 0 0 0
-0.062952 -0.039598 1.10229 0 0 0
-0.062952 -0.008591 1.24244 0 0 0
-0.062949 -0.124742 1.12841 0 0 0
-0.062945 0.042878 1.11199 0 0 0
-0.062944 -0.09782 0.819756 0 0 0
-0.062942 -0.132925 1.14177 0 0 0
-0.062935 -0.127463 1.13149 0 0 0
-0.062932 -0.045174 1.10579 0 0 0
-0.062929 0.017786 1.22712 0 0 0
-0.062928 -0.132943 1.14383 0 0 0
-0.062926 -0.095666 1.11346 0 0 0
-0.062926 -0.037531 1.1008 0 0 0
-0.062923 -0.046668 1.10633 0 0 0
-0.062913 0.04943 0.992328 0 0 0
-0.062909 -0.128183 1.1531 0 0 0
-0.062902 -0.125565 1.15628 0 0 0
-0.062897 0.054069 1.12104 0 0 0
-0.062894 -0.091643 1.12052 0 0 0
-0.06289 -0.09841 1.11234 0 0 0
-0.062887 -0.097384 1.10839 0 0 0
-0.062886 -0.025632 1.10313 0 0 0
-0.062883 -0.094236 1.11293 0 0 0
-0.062882 -0.095158 1.11256 0 0 0
-0.062871 -0.089008 0.831296 0 0 0
-0.062868 0.025058 1.14611 0 0 0
-0.062867 0.043555 1.15926 0 0 0
-0.06285 0.028176 1.13923 0 0 0
-0.062847 -0.102909 0.815257 0 0 0
-0.062843 0.030717 1.13323 0 0 0
-0.062836 -0.091558 1.11835 0 0 0
-0.062834 -0.124228 1.15786 0 0 0
-0.062833 -0.090259 1.12214 0 0 0
-0.062832 0.020195 1.02752 0 0 0
-0.062825 -0.107183 1.1786 0 0 0
-0.062822 -0.094641 1.11165 0 0 0
-0.062821 0.050666 1.1304 0 0 0
-0.06282 -0.049072 1.10646 0 0 0
-0.062814 -0.131489 1.13711 0 0 0
-0.062814 0.045846 1.10947 0 0 0
-0.062812 -0.1216 1.16104 0 0 0
-0.062811 0.024377 1.22116 0 0 0
-0.062809 -0.0974 1.11053 0 0 0
-0.062809 -0.083291 1.20134 0 0 0
-0.062795 0.03442 1.18302 0 0 0
-0.062786 -0.038431 1.10039 0 0 0
-0.062774 -0.126018 1.12887 0 0 0
-0.062773 -0.098991 0.809106 0 0 0
-0.062771 0.040274 1.16828 0 0 0
-0.062768 -0.09505 1.11037 0 0 0
-0.062766 0.047173 1.14785 0 0 0
-0.062765 0.030171 1.13415 0 0 0
-0.062763 -0.106072 1.10593 0 0 0
-0.062761 0.049172 0.982562 0 0 0
-0.06276 -0.093634 1.10984 0 0 0
-0.062758 -0.096402 1.10872 0 0 0
-0.062755 0.027645 1.14013 0 0 0
-0.062747 -0.09795 0.834928 0 0 0
-0.062733 -0.091886 1.1149 0 0 0
-0.062732 -0.092752 1.11237 0 0 0
-0.06273 -0.047531 1.1059 0 0 0
-0.062718 -0.03438 1.09965 0 0 0
-0.062717 -0.093123 1.10893 0 0 0
-0.062715 0.054753 1.11402 0 0 0
-0.062707 0.032217 1.02905 0 0 0
-0.062706 0.021157 1.02792 0 0 0
-0.062706 0.038343 1.11728 0 0 0
-0.062704 -0.095346 1.10474 0 0 0
-0.062696 0.054823 1.12003 0 0 0
-0.062692 -0.009406 1.02292 0 0 0
-0.062691 0.039565 1.11537 0 0 0
-0.06269 -0.036322 1.09888 0 0 0
-0.062689 -0.088343 1.12286 0 0 0
-0.062687 -0.041937 1.1024 0 0 0
-0.062686 -0.119095 1.12001 0 0 0
-0.062686 -0.043977 1.10387 0 0 0
-0.062682 0.029372 1.21001 0 0 0
-0.062681 -0.008384 1.02327 0 0 0
-0.062678 -0.092236 1.11146 0 0 0
-0.062677 0.029633 1.13506 0 0 0
-0.062677 0.037152 1.11918 0 0 0
-0.062677 0.037757 1.11823 0 0 0
-0.062675 -0.110206 1.17621 0 0 0
-0.062675 -0.04996 1.10605 0 0 0
-0.062673 -0.09753 0.836283 0 0 0
-0.062673 0.036552 1.12013 0 0 0
-0.062672 0.054536 1.1103 0 0 0
-0.062671 -0.029338 1.09928 0 0 0
-0.062671 0.052796 1.12521 0 0 0
-0.06267 -0.132003 1.14829 0 0 0
-0.062668 0.040187 1.11441 0 0 0
-0.062666 -0.019633 1.24274 0 0 0
-0.062664 0.03369 1.0283 0 0 0
-0.062655 -0.113707 1.17263 0 0 0
-0.062655 0.035173 1.02753 0 0 0
-0.062651 -0.094776 1.10165 0 0 0
-0.06265 -0.094831 1.10383 0 0 0
-0.062648 -0.122301 1.124 0 0 0
-0.062648 -0.091354 1.11399 0 0 0
-0.062648 0.050597 1.13267 0 0 0
-0.062641 -0.116322 1.16944 0 0 0
-0.06264 -0.093522 1.10764 0 0 0
-0.062639 -0.092596 1.10801 0 0 0
-0.062634 -0.031829 1.09945 0 0 0
-0.062631 -0.127639 1.15427 0 0 0
-0.062628 0.020655 1.22497 0 0 0
-0.06262 0.035983 1.12107 0 0 0
-0.062618 0.037123 1.02567 0 0 0
-0.062613 -0.043403 1.10293 0 0 0
-0.062598 -0.034751 1.0983 0 0 0
-0.062595 -0.091649 1.10837 0 0 0
-0.062594 0.029746 1.20569 0 0 0
-0.062593 -0.032788 1.09906 0 0 0
-0.062587 -0.128927 1.15267 0 0 0
-0.062585 -0.09393 1.10636 0 0 0
-0.06258 0.028508 1.13691 0 0 0
-0.062578 -0.109251 1.10783 0 0 0
-0.062575 -0.0146 1.02127 0 0 0
-0.062574 -0.124551 1.12622 0 0 0
-0.062574 -0.090019 1.11777 0 0 0
-0.062573 -0.053408 1.10803 0 0 0
-0.062572 0.012499 1.0264 0 0 0
-0.062564 -0.048408 1.10548 0 0 0
-0.062563 -0.091199 1.10964 0 0 0
-0.062556 -0.098739 0.812729 0 0 0
-0.062556 -0.020514 0.971056 0 0 0
-0.062549 -0.1181 1.11822 0 0 0
-0.062548 0.0018 1.02415 0 0 0
-0.062547 -0.119325 1.16502 0 0 0
-0.062546 -0.124987 1.15743 0 0 0
-0.062546 -0.108281 1.10603 0 0 0
-0.062542 -0.076053 1.20854 0 0 0
-0.062537 -0.092982 1.10671 0 0 0
-0.062532 -0.052862 1.1071 0 0 0
-0.062532 0.02311 1.02868 0 0 0
-0.062527 0.02543 1.14379 0 0 0
-0.062523 0.055747 1.11671 0 0 0
-0.062521 -0.026737 1.09907 0 0 0
-0.062517 -0.093787 1.10199 0 0 0
-0.062514 0.042113 1.11149 0 0 0
-0.062513 0.027958 1.13782 0 0 0
-0.062506 -0.111019 1.1758 0 0 0
-0.0625 -0.090677 1.10872 0 0 0
-0.062498 -0.02771 1.09868 0 0 0
-0.062493 0.030507 1.13182 0 0 0
-0.062492 -0.091108 1.10745 0 0 0
-0.062489 -0.107777 1.10512 0 0 0
-0.062487 -0.050824 1.10562 0 0 0
-0.062485 0.034866 1.12293 0 0 0
-0.062479 0.049368 1.14273 0 0 0
-0.062476 -0.09303 0.825941 0 0 0
-0.062466 -0.044828 1.10344 0 0 0
-0.062465 -0.095071 1.09815 0 0 0
-0.062462 -0.033153 1.09771 0 0 0
-0.062461 0.055599 1.11902 0 0 0
-0.062459 -0.098221 0.824492 0 0 0
-0.062459 0.0485 0.978854 0 0 0
-0.062457 -0.09338 1.10542 0 0 0
-0.062457 -0.015682 1.02099 0 0 0
-0.062454 0.02409 1.02905 0 0 0
-0.062441 0.030103 1.20911 0 0 0
-0.062437 -0.123631 1.15901 0 0 0
-0.062437 -0.009783 1.2428 0 0 0
-0.062435 -0.093257 1.10106 0 0 0
-0.062433 -0.119883 1.11958 0 0 0
-0.062421 -0.093307 1.10324 0 0 0
-0.062421 0.030276 1.20696 0 0 0
-0.062412 -0.034543 1.09599 0 0 0
-0.062405 -0.028643 1.09828 0 0 0
-0.062396 -0.092425 1.10578 0 0 0
-0.062393 -0.089747 0.829936 0 0 0
-0.062393 0.053419 1.10612 0 0 0
-0.062385 -0.033547 1.09637 0 0 0
-0.062384 0.056028 1.11434 0 0 0
-0.062377 -0.018524 1.24314 0 0 0
-0.062366 -0.119387 1.11869 0 0 0
-0.062364 -0.097313 1.09611 0 0 0
-0.06236 0.054497 1.10652 0 0 0
-0.062353 -0.092783 1.10232 0 0 0
-0.062341 -0.108624 1.10472 0 0 0
-0.062339 -0.08837 1.11287 0 0 0
-0.062337 -0.039061 1.09765 0 0 0
-0.062322 0.03317 1.12574 0 0 0
-0.062321 -0.093147 1.09885 0 0 0
-0.062321 -0.04164 1.10006 0 0 0
-0.062315 0.025046 1.02945 0 0 0
-0.062313 -0.053708 1.10666 0 0 0
-0.062308 -0.12579 1.12666 0 0 0
-0.062303 -0.118893 1.1178 0 0 0
-0.062301 -0.091888 1.10485 0 0 0
-0.062298 -0.089595 1.10687 0 0 0
-0.062297 -0.094009 1.09629 0 0 0
-0.062295 -0.079069 1.20611 0 0 0
-0.062292 -0.004259 1.24201 0 0 0
-0.062289 -0.118787 1.16619 0 0 0
-0.062289 -0.090954 1.10522 0 0 0
-0.062283 0.04731 1.15003 0 0 0
-0.06228 -0.132718 1.14784 0 0 0
-0.06228 -0.051678 1.10519 0 0 0
-0.062278 -0.088402 0.831644 0 0 0
-0.062273 -0.098195 1.09572 0 0 0
-0.06227 0.056049 1.10827 0 0 0
-0.062267 -0.087841 1.11196 0 0 0
-0.062263 -0.093064 1.09665 0 0 0
-0.062262 0.038471 1.02508 0 0 0
-0.06226 -0.125746 1.15701 0 0 0
-0.06226 0.029899 1.21339 0 0 0
-0.062257 -0.092625 1.09792 0 0 0
-0.062254 -0.055684 1.10811 0 0 0
-0.062252 0.026864 1.21982 0 0 0
-0.06225 0.032019 1.1276 0 0 0
-0.062247 -0.087953 1.11628 0 0 0
-0.062247 0.034017 1.18602 0 0 0
-0.062247 0.052891 1.12743 0 0 0
-0.062246 -0.13168 1.13576 0 0 0
-0.062237 0.014395 1.02724 0 0 0
-0.062235 -0.088201 1.1085 0 0 0
-0.062234 -0.091363 1.10393 0 0 0
-0.062234 -0.017842 1.02041 0 0 0
-0.062233 -0.097032 0.81899 0 0 0
-0.062232 -0.035862 1.09425 0 0 0
-0.062232 0.031433 1.12854 0 0 0
-0.062231 -0.019908 1.01973 0 0 0
-0.062212 0.009687 1.23419 0 0 0
-0.06221 -0.018885 1.02008 0 0 0
-0.062209 -0.043088 1.10059 0 0 0
-0.062196 -0.055131 1.10718 0 0 0
-0.06219 -0.096252 1.09425 0 0 0
-0.062187 -0.092098 1.097 0 0 0
-0.062187 -0.091284 1.10174 0 0 0
-0.062179 0.025965 1.13921 0 0 0
-0.062178 0.037039 1.11771 0 0 0
-0.062177 -0.109463 1.10431 0 0 0
-0.062177 0.024788 1.14106 0 0 0
-0.062174 0.043555 1.10948 0 0 0
-0.062173 -0.110446 1.17696 0 0 0
-0.06217 -0.091711 1.10046 0 0 0
-0.062165 -0.045104 1.10205 0 0 0
-0.062164 -0.090837 1.10301 0 0 0
-0.062159 0.050554 0.98947 0 0 0
-0.062159 0.056557 1.10961 0 0 0
-0.062151 -0.099064 1.09532 0 0 0
-0.06215 -0.087291 1.11103 0 0 0
-0.06215 -0.035274 1.09328 0 0 0
-0.062148 -0.056586 1.1077 0 0 0
-0.062148 0.026356 1.22067 0 0 0
-0.062147 0.029699 1.13134 0 0 0
-0.062147 0.036467 1.02701 0 0 0
-0.062146 -0.033309 1.09404 0 0 0
-0.06214 -0.087225 1.10885 0 0 0
-0.062137 -0.092018 1.09479 0 0 0
-0.062135 -0.101612 0.810649 0 0 0
-0.06213 -0.089456 1.10465 0 0 0
-0.062114 -0.095725 1.09331 0 0 0
-0.062113 -0.099561 0.817413 0 0 0
-0.062107 -0.124372 1.15857 0 0 0
-0.062084 -0.100931 1.09675 0 0 0
-0.062082 0.02035 1.13811 0 0 0
-0.062077 -0.002631 1.2416 0 0 0
-0.062073 -0.091056 1.09514 0 0 0
-0.062071 -0.090735 1.1008 0 0 0
-0.062066 -0.124303 1.124 0 0 0
-0.062065 -0.090426 0.828495 0 0 0
-0.062063 -0.091109 1.09733 0 0 0
-0.062054 0.025024 1.13878 0 0 0
-0.062048 -0.123037 1.16016 0 0 0
-0.062041 -0.00199 1.0245 0 0 0
-0.062039 0.031319 1.19608 0 0 0
-0.062033 -0.089351 1.10244 0 0 0
-0.062033 0.049324 0.979374 0 0 0
-0.062031 -0.032263 1.09439 0 0 0
-0.06203 -0.086242 1.1092 0 0 0
-0.062028 -0.088913 1.10372 0 0 0
-0.062025 0.027403 1.13505 0 0 0
-0.062024 0.019956 1.13677 0 0 0
-0.062017 -0.100414 1.09582 0 0 0
-0.061996 -0.091894 1.09256 0 0 0
-0.061996 -0.076271 1.2093 0 0 0
-0.061995 0.05653 1.11795 0 0 0
-0.061988 -0.099913 1.09491 0 0 0
-0.061987 0.051893 1.13523 0 0 0
-0.06198 -0.043937 1.10015 0 0 0
-0.06198 0.022015 1.13756 0 0 0
-0.061978 0.030565 1.12809 0 0 0
-0.061977 -0.110286 1.10389 0 0 0
-0.061975 0.033557 1.12337 0 0 0
-0.061973 0.031165 1.12714 0 0 0
-0.061972 -0.10025 0.804399 0 0 0
-0.061964 -0.086149 1.107 0 0 0
-0.061964 -0.045966 1.10162 0 0 0
-0.061963 0.032113 1.19301 0 0 0
-0.061962 -0.056925 1.10636 0 0 0
-0.061958 0.031772 1.1262 0 0 0
-0.061954 -0.085709 1.10828 0 0 0
-0.061949 0.024659 1.13743 0 0 0
-0.061932 -0.129103 1.15339 0 0 0
-0.061932 -0.113849 1.17335 0 0 0
-0.061932 -0.078472 1.20728 0 0 0
-0.061929 -0.08837 1.10279 0 0 0
-0.061923 0.023656 1.13702 0 0 0
-0.061921 -0.122852 1.12135 0 0 0
-0.061918 0.049555 1.14489 0 0 0
-0.061917 -0.090109 1.09767 0 0 0
-0.061916 -0.133354 1.13911 0 0 0
-0.061913 -0.086559 1.10571 0 0 0
-0.061913 0.037862 1.02635 0 0 0
-0.061909 0.01196 1.23291 0 0 0
-0.061908 -0.098262 0.817783 0 0 0
-0.061906 -0.043363 1.0992 0 0 0
-0.061903 -0.129689 1.13016 0 0 0
-0.061891 -0.12647 1.15656 0 0 0
-0.061885 -0.053395 1.10434 0 0 0
-0.061875 0.023255 1.13568 0 0 0
-0.061874 -0.130589 1.13188 0 0 0
-0.061874 -0.121226 1.16293 0 0 0
-0.06186 -0.109278 1.10207 0 0 0
-0.061856 -0.00463 1.02503 0 0 0
-0.061855 -0.045375 1.10067 0 0 0
-0.061852 -0.034023 1.09132 0 0 0
-0.061851 0.057142 1.10484 0 0 0
-0.061845 -0.01485 1.24354 0 0 0
-0.061833 -0.090827 1.09069 0 0 0
-0.061833 0.025479 1.13421 0 0 0
-0.06182 -0.088258 1.10057 0 0 0
-0.06182 -0.077091 1.20888 0 0 0
-0.061819 0.051821 1.13749 0 0 0
-0.061815 0.056731 1.10346 0 0 0
-0.061809 -0.089444 1.09233 0 0 0
-0.061808 0.026677 1.13234 0 0 0
-0.061807 -0.090474 0.825342 0 0 0
-0.061807 -0.04888 1.10268 0 0 0
-0.061797 -0.096995 0.836873 0 0 0
-0.061797 -0.086007 1.10478 0 0 0
-0.061795 -0.100748 1.09449 0 0 0
-0.061794 0.029653 1.12764 0 0 0
-0.061792 0.032095 1.2086 0 0 0
-0.061791 -0.09792 0.8342 0 0 0
-0.061789 -0.08868 1.09929 0 0 0
-0.061785 -0.027718 1.24098 0 0 0
-0.061781 0.050936 0.991038 0 0 0
-0.06178 -0.125114 1.15814 0 0 0
-0.06178 0.05105 1.14071 0 0 0
-0.061768 0.044093 1.16131 0 0 0
-0.061762 -0.054292 1.10393 0 0 0
-0.061762 0.031433 1.20385 0 0 0
-0.061761 -0.099909 0.805756 0 0 0
-0.061757 0.007325 1.23623 0 0 0
-0.061752 -0.111098 1.10347 0 0 0
-0.061749 0.03688 1.11626 0 0 0
-0.061745 0.031023 1.20256 0 0 0
-0.061741 -0.128248 1.12753 0 0 0
-0.06174 -0.119433 1.16572 0 0 0
-0.061737 0.037492 1.1153 0 0 0
-0.061734 0.016828 1.22954 0 0 0
-0.061732 -0.04166 1.09635 0 0 0
-0.061729 0.036289 1.11721 0 0 0
-0.061728 -0.031988 1.09205 0 0 0
-0.061725 0.057523 1.11459 0 0 0
-0.061721 0.031489 1.1248 0 0 0
-0.061719 -0.044234 1.09877 0 0 0
-0.061719 0.032089 1.12385 0 0 0
-0.061718 -0.134219 1.14492 0 0 0
-0.061714 -0.132933 1.14857 0 0 0
-0.061712 0.031243 1.21376 0 0 0
-0.061708 -0.101056 0.815232 0 0 0
-0.061703 0.032312 1.20643 0 0 0
-0.061687 -0.110592 1.10256 0 0 0
-0.061687 -0.046255 1.10025 0 0 0
-0.061686 -0.024815 1.01974 0 0 0
-0.061672 0.033917 1.121 0 0 0
-0.061668 0.049657 0.978478 0 0 0
-0.061668 0.050948 0.993556 0 0 0
-0.061666 -0.125025 1.12354 0 0 0
-0.061664 -0.079246 1.20685 0 0 0
-0.061655 0.004492 1.0256 0 0 0
-0.061653 -0.091139 0.8271 0 0 0
-0.061652 -0.043664 1.09782 0 0 0
-0.061651 -0.087621 1.09743 0 0 0
-0.061651 -0.087184 1.09871 0 0 0
-0.061643 0.014217 1.23164 0 0 0
-0.06164 0.007547 1.02662 0 0 0
-0.061634 -0.102084 1.09499 0 0 0
-0.061634 0.057478 1.10243 0 0 0
-0.06163 -0.047725 1.10078 0 0 0
-0.061628 -0.127741 1.12664 0 0 0
-0.061626 -0.052734 1.10335 0 0 0
-0.061619 0.050668 0.981282 0 0 0
-0.061605 -0.043103 1.09687 0 0 0
-0.061604 -0.111968 1.17611 0 0 0
-0.061603 0.042879 1.10894 0 0 0
-0.061598 -0.119452 1.11514 0 0 0
-0.06158 0.006503 1.02631 0 0 0
-0.061579 -0.087088 1.0965 0 0 0
-0.061577 -0.032343 1.09068 0 0 0
-0.061568 0.028796 1.03116 0 0 0
-0.061562 -0.127211 1.15613 0 0 0
-0.061562 -0.1124 1.10395 0 0 0
-0.061562 -0.037895 1.09199 0 0 0
-0.061561 -0.045121 1.09835 0 0 0
-0.061549 0.051317 0.990076 0 0 0
-0.061542 -0.100582 1.09224 0 0 0
-0.061542 0.054407 1.12768 0 0 0
-0.061541 -0.103448 1.09551 0 0 0
-0.061538 -0.098834 0.814275 0 0 0
-0.061533 0.025021 1.22317 0 0 0
-0.061531 -0.123579 1.1209 0 0 0
-0.061531 -0.088317 1.09042 0 0 0
-0.061526 0.058663 1.10889 0 0 0
-0.061517 -0.049163 1.1013 0 0 0
-0.061515 -0.114551 1.1729 0 0 0
-0.061508 -0.1119 1.10304 0 0 0
-0.061506 -0.026969 1.01914 0 0 0
-0.061503 -0.056078 1.10311 0 0 0
-0.061492 -0.087861 1.0917 0 0 0
-0.061491 -0.086548 1.09556 0 0 0
-0.061488 -0.044548 1.0974 0 0 0
-0.061485 0.019659 1.22741 0 0 0
-0.061484 0.046458 1.10544 0 0 0
-0.061483 -0.08917 1.08784 0 0 0
-0.061479 0.028343 1.22017 0 0 0
-0.061472 -0.048609 1.10036 0 0 0
-0.061472 0.058648 1.10279 0 0 0
-0.061462 0.05909 1.10417 0 0 0
-0.061461 -0.041952 1.09497 0 0 0
-0.061448 -0.102436 1.09367 0 0 0
-0.061444 -0.083842 1.10105 0 0 0
-0.06144 -0.115829 1.17129 0 0 0
-0.061436 0.056112 1.10061 0 0 0
-0.061425 -0.043979 1.09645 0 0 0
-0.061423 -0.039339 1.09252 0 0 0
-0.061422 -0.082895 1.10142 0 0 0
-0.06142 -0.082457 1.1027 0 0 0
-0.061414 0.05754 1.11685 0 0 0
-0.061413 -0.037272 1.09101 0 0 0
-0.06141 -0.101932 1.09275 0 0 0
-0.061408 -0.041386 1.09401 0 0 0
-0.061406 -0.076468 1.21005 0 0 0
-0.061402 0.051912 1.1397 0 0 0
-0.061396 -0.121903 1.16247 0 0 0
-0.061396 -0.046005 1.09793 0 0 0
-0.061389 0.033094 1.20552 0 0 0
-0.061389 0.040752 1.11042 0 0 0
-0.061387 -0.088189 1.08818 0 0 0
-0.061382 0.033668 1.11959 0 0 0
-0.061378 -0.031686 1.08968 0 0 0
-0.061376 -0.121189 1.11648 0 0 0
-0.061375 0.034273 1.11863 0 0 0
-0.061368 0.008456 1.02709 0 0 0
-0.061365 0.037104 1.18012 0 0 0
-0.061358 0.019119 1.02936 0 0 0
-0.061357 -0.088613 1.08688 0 0 0
-0.061347 0.036099 1.11577 0 0 0
-0.061344 -0.096781 0.81973 0 0 0
-0.061341 -0.043399 1.09549 0 0 0
-0.061336 -0.126698 1.12484 0 0 0
-0.061332 0.059612 1.10552 0 0 0
-0.061326 -0.056946 1.10268 0 0 0
-0.061325 -0.078661 1.20803 0 0 0
-0.061323 -0.100431 1.08999 0 0 0
-0.061313 -0.045427 1.09698 0 0 0
-0.061307 -0.0814 1.10085 0 0 0
-0.061305 -0.086835 1.09202 0 0 0
-0.061304 -0.02312 0.973382 0 0 0
-0.061303 0.055184 1.12668 0 0 0
-0.061299 -0.103775 1.09417 0 0 0
-0.061297 -0.047454 1.09846 0 0 0
-0.061292 0.031349 1.21586 0 0 0
-0.061291 -0.117075 1.16967 0 0 0
-0.06129 -0.129861 1.1288 0 0 0
-0.06129 -0.003844 1.02564 0 0 0
-0.061287 -0.049479 1.09994 0 0 0
-0.061285 0.058337 1.10137 0 0 0
-0.061281 -0.130314 1.12966 0 0 0
-0.061278 -0.103281 1.09326 0 0 0
-0.061257 -0.13076 1.13052 0 0 0
-0.061255 -0.088246 0.830173 0 0 0
-0.061255 0.059471 1.10785 0 0 0
-0.06125 0.03737 1.11383 0 0 0
-0.061246 -0.030627 1.09003 0 0 0
-0.061242 -0.087621 1.08722 0 0 0
-0.061239 -0.099603 0.81776 0 0 0
-0.061236 -0.087179 1.08851 0 0 0
-0.061235 -0.102776 1.09234 0 0 0
-0.061235 -0.044851 1.09602 0 0 0
-0.061235 0.03225 1.19728 0 0 0
-0.061234 -0.046889 1.09751 0 0 0
-0.061224 0.038608 1.02702 0 0 0
-0.061223 0.047824 1.1521 0 0 0
-0.061219 0.041565 1.02548 0 0 0
-0.061217 -0.082731 1.09917 0 0 0
-0.061216 -0.086731 1.08979 0 0 0
-0.06121 -0.040203 1.09208 0 0 0
-0.061208 -0.102277 1.09142 0 0 0
-0.061208 -0.021921 1.021 0 0 0
-0.061207 -0.077277 1.20963 0 0 0
-0.061205 0.044362 1.10691 0 0 0
-0.061203 0.034665 1.03079 0 0 0
-0.061199 -0.048902 1.09898 0 0 0
-0.061196 -0.12008 1.16525 0 0 0
-0.061179 -0.101778 1.0905 0 0 0
-0.061173 0.02006 1.02978 0 0 0
-0.061147 -0.050901 1.10045 0 0 0
-0.061143 -0.046307 1.09655 0 0 0
-0.061143 0.056908 1.12008 0 0 0
-0.061138 -0.101272 1.08958 0 0 0
-0.061129 0.056943 1.09955 0 0 0
-0.061128 -0.090758 1.08258 0 0 0
-0.061125 -0.009562 1.24353 0 0 0
-0.061125 0.058008 1.09995 0 0 0
-0.061123 -0.038095 1.09055 0 0 0
-0.061122 0.033399 1.11818 0 0 0
-0.061114 -0.090244 0.827751 0 0 0
-0.061107 0.03401 1.11722 0 0 0
-0.061102 -0.107805 1.18083 0 0 0
-0.061093 -0.133124 1.1493 0 0 0
-0.061089 0.033963 1.21023 0 0 0
-0.061088 0.038686 1.11187 0 0 0
-0.061087 -0.083004 1.20399 0 0 0
-0.061086 0.052079 0.988155 0 0 0
-0.061077 -0.020736 1.24384 0 0 0
-0.061072 -0.08028 1.09896 0 0 0
-0.061067 -0.088892 0.827628 0 0 0
-0.061066 -0.013717 1.0238 0 0 0
-0.061064 -0.096382 0.837427 0 0 0
-0.061062 -0.123347 1.11867 0 0 0
-0.061057 -0.127931 1.12528 0 0 0
-0.061055 0.034645 1.11625 0 0 0
-0.061053 -0.043683 1.0941 0 0 0
-0.061052 0.046545 1.15618 0 0 0
-0.061049 0.033893 1.20461 0 0 0
-0.061046 -0.134346 1.14149 0 0 0
-0.061045 0.035254 1.1153 0 0 0
-0.061044 -0.02689 1.24216 0 0 0
-0.061041 -0.079428 1.2076 0 0 0
-0.061035 0.048602 1.10242 0 0 0
-0.061034 -0.090215 1.08163 0 0 0
-0.061024 -0.085701 1.09011 0 0 0
-0.061015 -0.010646 1.02485 0 0 0
-0.061015 0.043204 1.16526 0 0 0
-0.061013 -0.113503 1.10219 0 0 0
-0.061011 -0.05722 1.10131 0 0 0
-0.061009 -0.043123 1.09315 0 0 0
-0.061009 -0.029837 1.08674 0 0 0
-0.061007 -0.087387 1.08272 0 0 0
-0.061004 -0.017874 1.02247 0 0 0
-0.060993 -0.013413 1.2439 0 0 0
-0.060993 -0.009625 1.0252 0 0 0
-0.060989 -0.102615 1.09008 0 0 0
-0.060987 -0.030813 1.08635 0 0 0
-0.060985 -0.027796 1.24174 0 0 0
-0.060983 0.039892 1.17425 0 0 0
-0.060983 0.051366 0.979447 0 0 0
-0.060971 -0.081608 1.09728 0 0 0
-0.060968 -0.091122 1.08124 0 0 0
-0.060964 0.060293 1.1068 0 0 0
-0.060964 0.061116 1.10347 0 0 0
-0.060958 -0.09255 1.0818 0 0 0
-0.060956 -0.018929 1.02215 0 0 0
-0.06095 0.039382 1.11088 0 0 0
-0.060939 -0.102106 1.08916 0 0 0
-0.060937 -0.055698 1.10074 0 0 0
-0.060935 -0.042546 1.09219 0 0 0
-0.060932 -0.08685 1.08177 0 0 0
-0.060931 -0.080648 1.09764 0 0 0
-0.060922 0.056056 1.12564 0 0 0
-0.060918 -0.083835 1.09303 0 0 0
-0.060918 0.021987 1.03058 0 0 0
-0.060914 -0.127411 1.12438 0 0 0
-0.060904 0.00992 1.23492 0 0 0
-0.060899 -0.105435 1.09333 0 0 0
-0.060898 0.036556 1.11335 0 0 0
-0.060895 0.030876 1.11828 0 0 0
-0.060885 -0.116472 1.17082 0 0 0
-0.060884 -0.108596 1.18041 0 0 0
-0.060873 -0.085128 1.08915 0 0 0
-0.060872 -0.101588 1.08822 0 0 0
-0.060872 0.030548 1.03218 0 0 0
-0.060871 -0.026747 1.02091 0 0 0
-0.060869 0.036072 1.18404 0 0 0
-0.060863 -0.123867 1.16041 0 0 0
-0.060863 0.059348 1.11245 0 0 0
-0.060851 0.033952 1.21236 0 0 0
-0.060843 -0.017238 1.24427 0 0 0
-0.060842 0.052097 1.14187 0 0 0
-0.060838 -0.056607 1.10034 0 0 0
-0.060835 -0.126917 1.12349 0 0 0
-0.060826 0.014155 1.23241 0 0 0
-0.060823 0.030906 1.21881 0 0 0
-0.06082 -0.007641 1.02597 0 0 0
-0.060818 -0.119512 1.11157 0 0 0
-0.060807 -0.04399 1.09272 0 0 0
-0.060788 -0.087608 0.830257 0 0 0
-0.060788 0.055338 1.12888 0 0 0
-0.060787 -0.08327 1.09207 0 0 0
-0.060786 -0.08766 1.07914 0 0 0
-0.060782 -0.119028 1.11067 0 0 0
-0.060782 -0.048057 1.0957 0 0 0
-0.060779 -0.090036 1.07934 0 0 0
-0.060779 -0.059019 1.10049 0 0 0
-0.060776 0.003623 1.02715 0 0 0
-0.060769 0.012093 1.23366 0 0 0
-0.060768 -0.085015 1.0869 0 0 0
-0.060765 -0.128635 1.15523 0 0 0
-0.060765 -0.111965 1.09943 0 0 0
-0.060764 -0.07664 1.2108 0 0 0
-0.060764 0.034998 1.11387 0 0 0
-0.060762 0.041996 1.16927 0 0 0
-0.06076 0.031525 1.21795 0 0 0
-0.060755 -0.103432 1.08965 0 0 0
-0.060753 -0.085762 1.07986 0 0 0
-0.06075 0.030533 1.11689 0 0 0
-0.060749 0.03298 1.19851 0 0 0
-0.060745 -0.05752 1.09994 0 0 0
-0.06074 0.003237 1.23946 0 0 0
-0.060736 -0.084122 1.08948 0 0 0
-0.060735 -0.060475 1.10103 0 0 0
-0.060734 0.060254 1.1091 0 0 0
-0.060732 -0.028695 1.08704 0 0 0
-0.060731 -0.025772 1.02132 0 0 0
-0.06073 -0.080485 1.09538 0 0 0
-0.060724 0.032128 1.21709 0 0 0
-0.060719 0.058907 1.09886 0 0 0
-0.060714 -0.131898 1.13298 0 0 0
-0.060711 0.06148 1.10104 0 0 0
-0.060703 0.048771 1.15107 0 0 0
-0.060702 -0.08492 1.08467 0 0 0
-0.060699 -0.079527 1.09574 0 0 0
-0.060698 0.027906 1.11703 0 0 0
-0.060683 0.032733 1.21622 0 0 0
-0.060677 -0.04543 1.09325 0 0 0
-0.060667 -0.01471 1.24428 0 0 0
-0.060667 0.050686 0.975749 0 0 0
-0.060661 -0.049494 1.09623 0 0 0
-0.060661 0.035468 1.0314 0 0 0
-0.06066 -0.058436 1.09954 0 0 0
-0.060656 -0.028541 1.08474 0 0 0
-0.060654 -0.123141 1.11645 0 0 0
-0.060654 -0.12073 1.16478 0 0 0
-0.060652 0.051195 0.977145 0 0 0
-0.060646 0.025445 1.11488 0 0 0
-0.060643 -0.084829 1.08243 0 0 0
-0.060643 -0.042829 1.0908 0 0 0
-0.060641 -0.059907 1.10008 0 0 0
-0.060637 -0.039792 1.08967 0 0 0
-0.060636 0.031804 1.11496 0 0 0
-0.060635 -0.082365 1.20515 0 0 0
-0.060632 -0.124523 1.11908 0 0 0
-0.060632 0.026483 1.11527 0 0 0
-0.060621 -0.046906 1.09379 0 0 0
-0.060613 -0.134232 1.14762 0 0 0
-0.060607 0.019068 1.22903 0 0 0
-0.060606 -0.105257 1.09107 0 0 0
-0.060603 -0.107156 1.18197 0 0 0
-0.060597 0.030195 1.1155 0 0 0
-0.060593 -0.048927 1.09528 0 0 0
-0.060591 -0.084741 1.08019 0 0 0
-0.06059 -0.00671 1.02642 0 0 0
-0.060572 -0.078017 1.09517 0 0 0
-0.060571 -0.091814 1.07855 0 0 0
-0.060566 0.023908 1.22563 0 0 0
-0.060564 -0.09374 1.08003 0 0 0
-0.060561 0.029186 1.1151 0 0 0
-0.06056 0.042323 1.02614 0 0 0
-0.060558 -0.044295 1.09134 0 0 0
-0.060558 -0.010725 1.2439 0 0 0
-0.060542 -0.028039 1.08604 0 0 0
-0.060538 -0.024821 1.02176 0 0 0
-0.060534 -0.084274 1.08147 0 0 0
-0.060534 0.02508 1.1135 0 0 0
-0.060531 -0.048363 1.09433 0 0 0
-0.060526 0.040872 1.10885 0 0 0
-0.060523 -0.060804 1.09967 0 0 0
-0.060522 -0.133765 1.14882 0 0 0
-0.060516 0.033972 1.20108 0 0 0
-0.060514 0.036366 1.1119 0 0 0
-0.060512 -0.0842 1.07923 0 0 0
-0.060507 -0.079367 1.09348 0 0 0
-0.060504 -0.112763 1.099 0 0 0
-0.060499 -0.040697 1.08925 0 0 0
-0.060497 -0.057829 1.09857 0 0 0
-0.060496 0.036895 1.0307 0 0 0
-0.060491 0.038634 1.11037 0 0 0
-0.060489 -0.028889 1.08336 0 0 0
-0.060487 -0.104897 1.18394 0 0 0
-0.060485 0.033101 1.11301 0 0 0
-0.060484 0.050925 1.14596 0 0 0
-0.06048 0.044151 1.16425 0 0 0
-0.060468 -0.047797 1.09337 0 0 0
-0.060468 0.043791 1.10634 0 0 0
-0.060467 0.034616 1.21361 0 0 0
-0.060456 -0.077454 1.09421 0 0 0
-0.060454 -0.129941 1.12738 0 0 0
-0.060453 0.059713 1.09781 0 0 0
-0.060451 -0.045748 1.09187 0 0 0
-0.06045 -0.103732 1.08829 0 0 0
-0.060444 -0.128562 1.12478 0 0 0
-0.060441 -0.1189 1.16756 0 0 0
-0.060436 -0.131993 1.15161 0 0 0
-0.060428 -0.060234 1.09872 0 0 0
-0.060414 -0.120239 1.1111 0 0 0
-0.060403 0.047574 1.15514 0 0 0
-0.060396 -0.058738 1.09817 0 0 0
-0.06038 -0.079591 1.20834 0 0 0
-0.060379 -0.077854 1.0929 0 0 0
-0.060372 -0.119284 1.10932 0 0 0
-0.060368 0.055429 1.1311 0 0 0
-0.060364 -0.045167 1.09091 0 0 0
-0.060363 0.016541 1.23111 0 0 0
-0.060362 -0.081555 1.0892 0 0 0
-0.060358 -0.118339 1.10754 0 0 0
-0.060358 0.037071 1.1109 0 0 0
-0.060356 -0.082869 1.08531 0 0 0
-0.060352 0.035927 1.20407 0 0 0
-0.060345 0.051548 0.976224 0 0 0
-0.060344 0.033792 1.11202 0 0 0
-0.060342 -0.105575 1.08972 0 0 0
-0.060338 0.057254 1.12223 0 0 0
-0.060331 -0.061143 1.09832 0 0 0
-0.060327 0.032165 1.11257 0 0 0
-0.060326 -0.129331 1.15478 0 0 0
-0.060324 -0.041581 1.08883 0 0 0
-0.060323 -0.101297 1.18751 0 0 0
-0.060315 -0.027361 1.08502 0 0 0
-0.060314 0.035453 1.11145 0 0 0
-0.060313 0.053859 1.13759 0 0 0
-0.060311 -0.078231 1.20995 0 0 0
-0.060307 -0.059651 1.09777 0 0 0
-0.060306 -0.081967 1.08789 0 0 0
-0.060302 0.037024 1.18307 0 0 0
-0.060298 -0.133244 1.15 0 0 0
-0.060291 -0.126197 1.12038 0 0 0
-0.060289 -0.044591 1.08995 0 0 0
-0.060279 -0.114051 1.09947 0 0 0
-0.060274 -0.040036 1.08825 0 0 0
-0.060271 0.044532 1.10532 0 0 0
-0.060266 -0.062067 1.09793 0 0 0
-0.060261 -0.023907 1.02224 0 0 0
-0.060258 -0.093541 1.07773 0 0 0
-0.060257 -0.132615 1.13461 0 0 0
-0.060245 -0.082312 1.08435 0 0 0
-0.060243 0.035926 1.21185 0 0 0
-0.06024 -0.120124 1.16593 0 0 0
-0.060239 -0.082619 1.07859 0 0 0
-0.060225 -0.060568 1.09737 0 0 0
-0.060222 -0.11355 1.09856 0 0 0
-0.060221 -0.076324 1.09231 0 0 0
-0.060218 0.053159 0.985353 0 0 0
-0.060217 -0.042502 1.08842 0 0 0
-0.060217 0.032288 1.21918 0 0 0
-0.060207 0.015117 1.03003 0 0 0
-0.060195 0.059603 1.11463 0 0 0
-0.060194 0.035184 1.20146 0 0 0
-0.060182 -0.043998 1.08898 0 0 0
-0.060181 0.032891 1.21832 0 0 0
-0.060175 -0.093006 1.07677 0 0 0
-0.060175 -0.048081 1.09198 0 0 0
-0.060167 0.033481 1.21745 0 0 0
-0.060164 -0.081394 1.08692 0 0 0
-0.060164 -0.061496 1.09698 0 0 0
-0.060163 -0.099906 1.18909 0 0 0
-0.060163 -0.082453 1.0741 0 0 0
-0.060161 -0.094927 1.07826 0 0 0
-0.060155 -0.088408 0.828985 0 0 0
-0.060154 -0.008046 1.24389 0 0 0
-0.060151 -0.122893 1.11421 0 0 0
-0.060149 -0.076727 1.09099 0 0 0
-0.060145 0.036281 1.03199 0 0 0
-0.06014 0.054776 1.13431 0 0 0
-0.060134 0.036173 1.11045 0 0 0
-0.060133 0.02148 1.22772 0 0 0
-0.060131 -0.081751 1.08339 0 0 0
-0.060126 0.058429 1.09594 0 0 0
-0.060124 0.043006 1.16826 0 0 0
-0.060115 -0.027836 1.24249 0 0 0
-0.060113 0.031865 1.11117 0 0 0
-0.060111 -0.040928 1.08783 0 0 0
-0.060109 -0.090083 0.827038 0 0 0
-0.060105 -0.121377 1.16431 0 0 0
-0.060098 -0.045464 1.08952 0 0 0
-0.060093 -0.077138 1.08968 0 0 0
-0.06009 -0.122401 1.11331 0 0 0
-0.06009 0.034693 1.21572 0 0 0
-0.060081 -0.047498 1.09102 0 0 0
-0.060079 -0.033278 1.08497 0 0 0
-0.06007 -0.104284 1.18509 0 0 0
-0.060061 -0.011927 1.24426 0 0 0
-0.060059 0.040661 1.02715 0 0 0
-0.060056 0.037381 1.20792 0 0 0
-0.060055 -0.076172 1.09004 0 0 0
-0.060051 -0.081647 1.08114 0 0 0
-0.060039 0.052415 0.976693 0 0 0
-0.06003 -0.060906 1.09601 0 0 0
-0.060029 0.037142 1.20446 0 0 0
-0.060026 0.034746 1.03282 0 0 0
-0.060023 -0.041859 1.08742 0 0 0
-0.06001 0.05189 0.975316 0 0 0
-0.06 0.018875 1.22982 0 0 0
-0.059989 0.037258 1.21008 0 0 0
-0.059987 -0.118613 1.10619 0 0 0
-0.059981 0.040178 1.10832 0 0 0
-0.05998 -0.075187 1.09039 0 0 0
-0.059978 -0.119548 1.10797 0 0 0
-0.059971 -0.081543 1.07888 0 0 0
-0.059967 -0.089527 0.825034 0 0 0
-0.059967 -0.080727 1.08371 0 0 0
-0.059964 -0.134326 1.14005 0 0 0
-0.059963 0.056317 1.13006 0 0 0
-0.059962 0.032221 1.0333 0 0 0
-0.05996 -0.120945 1.11063 0 0 0
-0.059957 0.036766 1.20315 0 0 0
-0.059955 0.042462 1.10678 0 0 0
-0.059954 -0.12141 1.11151 0 0 0
-0.059954 -0.120475 1.10974 0 0 0
-0.059952 0.032568 1.11017 0 0 0
-0.059951 0.030719 1.22173 0 0 0
-0.05995 -0.107724 1.0898 0 0 0
-0.05995 -0.062782 1.09524 0 0 0
-0.059945 -0.024922 1.24373 0 0 0
-0.059941 -0.132666 1.15115 0 0 0
-0.059925 -0.100691 1.18867 0 0 0
-0.059924 -0.114331 1.09812 0 0 0
-0.059924 0.038561 1.10887 0 0 0
-0.059917 -0.097884 0.818911 0 0 0
-0.059916 0.014619 1.11035 0 0 0
-0.059907 -0.107309 1.18269 0 0 0
-0.059907 -0.07559 1.08908 0 0 0
-0.059907 0.013604 1.10995 0 0 0
-0.059902 -0.063715 1.09485 0 0 0
-0.05989 -0.113841 1.09721 0 0 0
-0.059887 -0.081062 1.08016 0 0 0
-0.059884 -0.08062 1.08146 0 0 0
-0.059877 -0.044274 1.08757 0 0 0
-0.059872 -0.060305 1.09505 0 0 0
-0.059872 0.04602 1.10327 0 0 0
-0.059867 -0.081296 1.07213 0 0 0
